# .PCD v0.7 - Point Cloud Data file format
VERSION 0.7
FIELDS x y z
SIZE 4 4 4
TYPE F F F
COUNT 1 1 1
WIDTH 1338
HEIGHT 1
VIEWPOINT 0 0 0 1 0 0 0
POINTS 1338
DATA ascii
-0.0043472149 -0.10303973 -0.46900001
-0.0028625166 -0.10282003 -0.46800002
-0.0013841233 -0.10260033 -0.46700001
8.7964523e-05 -0.10238063 -0.46600002
0.0015537472 -0.10216093 -0.46500003
0.0030132246 -0.10194123 -0.46400002
0.0044663968 -0.10172153 -0.46300003
0.0059132637 -0.10150183 -0.46200001
0.0073538255 -0.10128213 -0.46100003
0.0087880809 -0.10106242 -0.46000001
0.010216033 -0.10084273 -0.45900002
0.011637678 -0.10062303 -0.45800003
0.013081582 -0.10062303 -0.45800003
0.01449377 -0.10040332 -0.45700002
0.015934519 -0.10040332 -0.45700002
0.01737527 -0.10040332 -0.45700002
0.018774848 -0.10018363 -0.45600003
0.020212447 -0.10018363 -0.45600003
0.021602564 -0.099963918 -0.45500001
0.023037009 -0.099963918 -0.45500001
0.024471456 -0.099963918 -0.45500001
0.025962837 -0.10018363 -0.45600003
0.027400434 -0.10018363 -0.45600003
0.028838033 -0.10018363 -0.45600003
0.030342022 -0.10040332 -0.45700002
0.031852324 -0.10062303 -0.45800003
0.033368923 -0.10084273 -0.45900002
0.034891833 -0.10106242 -0.46000001
0.036421046 -0.10128213 -0.46100003
0.037874404 -0.10128213 -0.46100003
0.039242454 -0.10106242 -0.46000001
0.0406042 -0.10084273 -0.45900002
0.041959643 -0.10062303 -0.45800003
0.04330878 -0.10040332 -0.45700002
0.044651609 -0.10018363 -0.45600003
0.045988135 -0.099963918 -0.45500001
0.047318354 -0.099744223 -0.45400003
0.048642267 -0.09952452 -0.45300001
0.050070405 -0.09952452 -0.45300001
0.051384863 -0.099304818 -0.45200002
0.052809849 -0.099304818 -0.45200002
0.05423484 -0.099304818 -0.45200002
0.055782963 -0.09952452 -0.45300001
0.0573374 -0.099744223 -0.45400003
0.058898136 -0.099963918 -0.45500001
0.060465187 -0.10018363 -0.45600003
0.062174287 -0.10062303 -0.45800003
0.063757092 -0.10084273 -0.45900002
0.065346204 -0.10106242 -0.46000001
0.066941619 -0.10128213 -0.46100003
0.068394989 -0.10128213 -0.46100003
0.069848344 -0.10128213 -0.46100003
0.071301706 -0.10128213 -0.46100003
0.072755069 -0.10128213 -0.46100003
0.074208423 -0.10128213 -0.46100003
0.075661793 -0.10128213 -0.46100003
0.076947868 -0.10106242 -0.46000001
0.078227647 -0.10084273 -0.45900002
0.079674706 -0.10084273 -0.45900002
0.080768287 -0.10040332 -0.45700002
0.082029149 -0.10018363 -0.45600003
0.083100669 -0.099744223 -0.45400003
0.084345765 -0.09952452 -0.45300001
0.085395217 -0.099085122 -0.45100003
0.086432047 -0.098645717 -0.44900003
0.087651923 -0.098426014 -0.44800001
0.088865504 -0.098206319 -0.44700003
0.090072766 -0.097986609 -0.44600001
0.091273725 -0.097766913 -0.44500002
0.092468388 -0.097547218 -0.44400004
0.093868151 -0.097547218 -0.44400004
0.095267914 -0.097547218 -0.44400004
0.096449964 -0.097327508 -0.44300002
0.097846575 -0.097327508 -0.44300002
0.099243186 -0.097327508 -0.44300002
0.10063981 -0.097327508 -0.44300002
0.10180609 -0.097107813 -0.44200003
0.10319956 -0.097107813 -0.44200003
0.10459302 -0.097107813 -0.44200003
0.10574668 -0.09688811 -0.44100001
0.10713699 -0.09688811 -0.44100001
0.1085273 -0.09688811 -0.44100001
0.10966837 -0.096668407 -0.44000003
0.11105552 -0.096668407 -0.44000003
0.11218712 -0.096448705 -0.43900001
0.11357113 -0.096448705 -0.43900001
0.11443141 -0.096009299 -0.43700001
0.1155441 -0.095789604 -0.43600002
0.11611416 -0.095130503 -0.43300003
0.11693662 -0.094691098 -0.43100002
0.11747201 -0.094031997 -0.42800003
0.11826608 -0.093592599 -0.42600003
0.11876678 -0.092933491 -0.42300001
0.1195325 -0.092494093 -0.42100003
0.1202856 -0.092054687 -0.41900003
0.12102608 -0.091615289 -0.41700003
0.12175397 -0.091175884 -0.41500002
0.12276578 -0.090956189 -0.41400003
0.12377127 -0.090736486 -0.41300002
0.12477047 -0.090516783 -0.41200003
0.12576334 -0.090297081 -0.41100001
0.12674993 -0.090077385 -0.41000003
0.12804252 -0.090077385 -0.41000003
0.12901963 -0.089857675 -0.40900001
0.13030906 -0.089857675 -0.40900001
0.13127673 -0.08963798 -0.40800002
0.13256299 -0.08963798 -0.40800002
0.13384928 -0.08963798 -0.40800002
0.13513555 -0.08963798 -0.40800002
0.13642181 -0.08963798 -0.40800002
0.13804559 -0.089857675 -0.40900001
0.13933502 -0.089857675 -0.40900001
0.14096829 -0.090077385 -0.41000003
0.14260784 -0.090297081 -0.41100001
0.1442537 -0.090516783 -0.41200003
0.14625914 -0.090956189 -0.41400003
0.14792077 -0.091175884 -0.41500002
0.1495887 -0.091395587 -0.41600001
0.15090019 -0.091395587 -0.41600001
0.15221168 -0.091395587 -0.41600001
0.15352316 -0.091395587 -0.41600001
0.15483466 -0.091395587 -0.41600001
0.15577081 -0.091175884 -0.41500002
0.15670064 -0.090956189 -0.41400003
0.15800583 -0.090956189 -0.41400003
0.1589262 -0.090736486 -0.41300002
0.15984029 -0.090516783 -0.41200003
0.16074803 -0.090297081 -0.41100001
0.16125524 -0.089857675 -0.40900001
0.16214725 -0.08963798 -0.40800002
0.16263238 -0.089198574 -0.40600002
0.16350862 -0.088978879 -0.40500003
0.16437855 -0.088759176 -0.40400001
0.16483214 -0.088319771 -0.40200001
0.16527314 -0.087880366 -0.40000001
0.16528518 -0.087221265 -0.39700001
0.16527832 -0.086562164 -0.39400002
0.16567516 -0.086122766 -0.39200002
0.16563362 -0.085463665 -0.38900003
0.16600211 -0.08502426 -0.38700002
0.16679007 -0.084804557 -0.38600001
0.16713648 -0.084365152 -0.384
0.16790868 -0.084145457 -0.38300002
0.16867459 -0.083925754 -0.38200003
0.16943417 -0.083706051 -0.38100001
0.17063533 -0.083706051 -0.38100001
0.17138547 -0.083486356 -0.38000003
0.17212929 -0.083266653 -0.37900001
0.17332414 -0.083266653 -0.37900001
0.17451899 -0.083266653 -0.37900001
0.1752502 -0.08304695 -0.37800002
0.17644191 -0.08304695 -0.37800002
0.17716366 -0.082827248 -0.377
0.17835219 -0.082827248 -0.377
0.17954074 -0.082827248 -0.377
0.1802499 -0.082607552 -0.37600002
0.18143529 -0.082607552 -0.37600002
0.18262067 -0.082607552 -0.37600002
0.18331721 -0.08238785 -0.37500003
0.18449944 -0.08238785 -0.37500003
0.18568169 -0.08238785 -0.37500003
0.18686393 -0.08238785 -0.37500003
0.18804616 -0.08238785 -0.37500003
0.18922839 -0.08238785 -0.37500003
0.19041064 -0.08238785 -0.37500003
0.19159287 -0.08238785 -0.37500003
-0.22924373 -0.12970078 -0.58200002
-0.2274089 -0.12970078 -0.58200002
-0.22557406 -0.12970078 -0.58200002
-0.2233548 -0.12947792 -0.58100003
-0.22190441 -0.12970078 -0.58200002
-0.22006957 -0.12970078 -0.58200002
-0.21823476 -0.12970078 -0.58200002
-0.21677174 -0.12992363 -0.583
-0.21493377 -0.12992363 -0.583
-0.21309578 -0.12992363 -0.583
-0.2112578 -0.12992363 -0.583
-0.20906061 -0.12970078 -0.58200002
-0.20722578 -0.12970078 -0.58200002
-0.20539096 -0.12970078 -0.58200002
-0.20320638 -0.12947792 -0.58100003
-0.20137469 -0.12947792 -0.58100003
-0.19954303 -0.12947792 -0.58100003
-0.19737105 -0.12925507 -0.58000004
-0.19520541 -0.12903222 -0.57900006
-0.19338003 -0.12903222 -0.57900006
-0.1912238 -0.12880936 -0.57800001
-0.18940158 -0.12880936 -0.57800001
-0.18757936 -0.12880936 -0.57800001
-0.18543579 -0.1285865 -0.57700002
-0.18329848 -0.12836365 -0.57600003
-0.18085241 -0.12791795 -0.574
-0.17841898 -0.12747224 -0.57200003
-0.17507182 -0.12635797 -0.56700003
-0.17236744 -0.1256894 -0.56400001
-0.16968197 -0.12502086 -0.56100005
-0.16731471 -0.12457514 -0.55900002
-0.16496009 -0.12412944 -0.55700004
-0.16261806 -0.12368373 -0.55500001
-0.1605785 -0.12346087 -0.55400002
-0.15883194 -0.12346087 -0.55400002
-0.15708539 -0.12346087 -0.55400002
-0.15505844 -0.12323803 -0.55300003
-0.15331504 -0.12323803 -0.55300003
-0.15129755 -0.12301517 -0.55200005
-0.14955729 -0.12301517 -0.55200005
-0.14781706 -0.12301517 -0.55200005
-0.1460768 -0.12301517 -0.55200005
-0.14407505 -0.12279231 -0.551
-0.14233796 -0.12279231 -0.551
-0.14034569 -0.12256946 -0.55000001
-0.13835974 -0.12234661 -0.54900002
-0.13638008 -0.12212376 -0.54800004
-0.134161 -0.12167804 -0.546
-0.13195455 -0.12123234 -0.54400003
-0.1300001 -0.12100949 -0.54300004
-0.12805197 -0.12078664 -0.54200006
-0.12587702 -0.12034093 -0.54000002
-0.12371472 -0.11989523 -0.53800005
-0.12179179 -0.11967236 -0.537
-0.11965153 -0.11922666 -0.53500003
-0.11774439 -0.11900381 -0.53400004
-0.11584355 -0.11878096 -0.53300005
-0.113949 -0.11855809 -0.53200001
-0.11206077 -0.11833524 -0.53100002
-0.11017884 -0.11811239 -0.53000003
-0.10850795 -0.11811239 -0.53000003
-0.10663547 -0.11788954 -0.52900004
-0.10496774 -0.11788954 -0.52900004
-0.1033 -0.11788954 -0.52900004
-0.10163226 -0.11788954 -0.52900004
-0.099964514 -0.11788954 -0.52900004
-0.098296776 -0.11788954 -0.52900004
-0.096446365 -0.11766668 -0.528
-0.094781779 -0.11766668 -0.528
-0.0931172 -0.11766668 -0.528
-0.091452606 -0.11766668 -0.528
-0.08978802 -0.11766668 -0.528
-0.088123433 -0.11766668 -0.528
-0.086295098 -0.11744383 -0.52700001
-0.084633671 -0.11744383 -0.52700001
-0.082814798 -0.11722098 -0.52600002
-0.081156507 -0.11722098 -0.52600002
-0.079347089 -0.11699813 -0.52500004
-0.058339156 -0.10072982 -0.45200002
-0.056914173 -0.10072982 -0.45200002
-0.055611946 -0.10095266 -0.45300001
-0.054183807 -0.10095266 -0.45300001
-0.052755665 -0.10095266 -0.45300001
-0.051327527 -0.10095266 -0.45300001
-0.049899384 -0.10095266 -0.45300001
-0.048471246 -0.10095266 -0.45300001
-0.047146954 -0.10117552 -0.45400003
-0.048837215 -0.10808398 -0.48500001
-0.047308192 -0.10808398 -0.48500001
-0.045779169 -0.10808398 -0.48500001
-0.044250142 -0.10808398 -0.48500001
-0.042721119 -0.10808398 -0.48500001
-0.041192092 -0.10808398 -0.48500001
-0.039581291 -0.10786112 -0.48400003
-0.038055424 -0.10786112 -0.48400003
-0.036454074 -0.10763827 -0.48300001
-0.034931354 -0.10763827 -0.48300001
-0.033408638 -0.10763827 -0.48300001
-0.031819902 -0.10741542 -0.48200002
-0.030237474 -0.10719257 -0.48100004
-0.028721061 -0.10719257 -0.48100004
-0.027148087 -0.10696971 -0.48000002
-0.025634825 -0.10696971 -0.48000002
-0.024071313 -0.10674686 -0.47900003
-0.022561206 -0.10674686 -0.47900003
-0.021051096 -0.10674686 -0.47900003
-0.019500192 -0.10652401 -0.47800002
-0.017993238 -0.10652401 -0.47800002
-0.016451791 -0.10630115 -0.47700003
-0.01491665 -0.1060783 -0.47600001
-0.013387816 -0.10585544 -0.47500002
-0.011865286 -0.1056326 -0.47400004
-0.010349061 -0.10540973 -0.47300002
-0.0088391416 -0.10518689 -0.47200003
-0.0073355273 -0.10496403 -0.47100002
-0.0058382186 -0.10474118 -0.47000003
-0.0043472149 -0.10451832 -0.46900001
-0.0028625166 -0.10429547 -0.46800002
-0.0013841233 -0.10407262 -0.46700001
8.7964523e-05 -0.10384976 -0.46600002
0.0015537472 -0.10362691 -0.46500003
0.0030067307 -0.10318121 -0.46300003
0.0044663968 -0.10318121 -0.46300003
0.0059132637 -0.10295834 -0.46200001
0.0073538255 -0.1027355 -0.46100003
0.0087880809 -0.10251264 -0.46000001
0.010216033 -0.10228979 -0.45900002
0.011663088 -0.10228979 -0.45900002
0.013081582 -0.10206693 -0.45800003
0.01449377 -0.10184408 -0.45700002
0.015934519 -0.10184408 -0.45700002
0.01733725 -0.10162123 -0.45600003
0.018774848 -0.10162123 -0.45600003
0.02016812 -0.10139837 -0.45500001
0.021602564 -0.10139837 -0.45500001
0.023037009 -0.10139837 -0.45500001
0.024471456 -0.10139837 -0.45500001
0.025905902 -0.10139837 -0.45500001
0.027400434 -0.10162123 -0.45600003
0.028838033 -0.10162123 -0.45600003
0.030342022 -0.10184408 -0.45700002
0.031852324 -0.10206693 -0.45800003
0.033368923 -0.10228979 -0.45900002
0.034891833 -0.10251264 -0.46000001
0.03634204 -0.10251264 -0.46000001
0.037792247 -0.10251264 -0.46000001
0.039242454 -0.10251264 -0.46000001
0.0406042 -0.10228979 -0.45900002
0.041959643 -0.10206693 -0.45800003
0.043214012 -0.10162123 -0.45600003
0.044553686 -0.10139837 -0.45500001
0.04588706 -0.10117552 -0.45400003
0.047214124 -0.10095266 -0.45300001
0.048534889 -0.10072982 -0.45200002
0.049959876 -0.10072982 -0.45200002
0.051384863 -0.10072982 -0.45200002
0.052809849 -0.10072982 -0.45200002
0.05423484 -0.10072982 -0.45200002
0.055782963 -0.10095266 -0.45300001
0.0573374 -0.10117552 -0.45400003
0.059027582 -0.10162123 -0.45600003
0.060597785 -0.10184408 -0.45700002
0.062174287 -0.10206693 -0.45800003
0.063757092 -0.10228979 -0.45900002
0.065346204 -0.10251264 -0.46000001
0.066796407 -0.10251264 -0.46000001
0.068394989 -0.1027355 -0.46100003
0.069848344 -0.1027355 -0.46100003
0.07114704 -0.10251264 -0.46000001
0.072597243 -0.10251264 -0.46000001
0.074047454 -0.10251264 -0.46000001
0.075497665 -0.10251264 -0.46000001
0.076780595 -0.10228979 -0.45900002
0.078227647 -0.10228979 -0.45900002
0.079501122 -0.10206693 -0.45800003
0.080591552 -0.10162123 -0.45600003
0.081849255 -0.10139837 -0.45500001
0.082917623 -0.10095266 -0.45300001
0.084159575 -0.10072982 -0.45200002
0.085205868 -0.10028411 -0.45000002
0.086432047 -0.10006125 -0.44900003
0.087456271 -0.099615544 -0.44700003
0.088666692 -0.09939269 -0.44600001
0.089870811 -0.099169835 -0.44500002
0.091068618 -0.098946989 -0.44400004
0.092468388 -0.098946989 -0.44400004
0.093656734 -0.098724127 -0.44300002
0.095053345 -0.098724127 -0.44300002
0.096449964 -0.098724127 -0.44300002
0.097846575 -0.098724127 -0.44300002
0.099243186 -0.098724127 -0.44300002
0.10063981 -0.098724127 -0.44300002
0.10180609 -0.09850128 -0.44200003
0.10319956 -0.09850128 -0.44200003
0.10459302 -0.09850128 -0.44200003
0.10574668 -0.098278418 -0.44100001
0.10713699 -0.098278418 -0.44100001
0.1082812 -0.098055571 -0.44000003
0.10966837 -0.098055571 -0.44000003
0.11105552 -0.098055571 -0.44000003
0.11218712 -0.097832717 -0.43900001
0.11331242 -0.097609863 -0.43800002
0.11443141 -0.097387008 -0.43700001
0.1155441 -0.097164154 -0.43600002
0.11638232 -0.096718445 -0.43400002
0.11693662 -0.09604989 -0.43100002
0.11747201 -0.095381327 -0.42800003
0.11771084 -0.09448991 -0.42400002
0.11876678 -0.094267055 -0.42300001
0.11896464 -0.093375646 -0.41900003
0.11971144 -0.092929937 -0.41700003
0.12073585 -0.092707083 -0.41600001
0.12175397 -0.092484228 -0.41500002
0.12246924 -0.09203852 -0.41300002
0.12347158 -0.091815673 -0.41200003
0.12446762 -0.091592811 -0.41100001
0.12576334 -0.091592811 -0.41100001
0.12674993 -0.091369964 -0.41000003
0.12773022 -0.09114711 -0.40900001
0.12901963 -0.09114711 -0.40900001
0.13030906 -0.09114711 -0.40900001
0.13127673 -0.090924256 -0.40800002
0.13256299 -0.090924256 -0.40800002
0.13384928 -0.090924256 -0.40800002
0.13513555 -0.090924256 -0.40800002
0.13642181 -0.090924256 -0.40800002
0.13770808 -0.090924256 -0.40800002
0.13933502 -0.09114711 -0.40900001
0.14096829 -0.091369964 -0.41000003
0.14260784 -0.091592811 -0.41100001
0.1442537 -0.091815673 -0.41200003
0.14625914 -0.092261381 -0.41400003
0.14792077 -0.092484228 -0.41500002
0.1495887 -0.092707083 -0.41600001
0.15090019 -0.092707083 -0.41600001
0.15221168 -0.092707083 -0.41600001
0.15352316 -0.092707083 -0.41600001
0.15483466 -0.092707083 -0.41600001
0.15577081 -0.092484228 -0.41500002
0.15670064 -0.092261381 -0.41400003
0.15800583 -0.092261381 -0.41400003
0.1589262 -0.09203852 -0.41300002
0.15984029 -0.091815673 -0.41200003
0.16074803 -0.091592811 -0.41100001
0.16164951 -0.091369964 -0.41000003
0.16214725 -0.090924256 -0.40800002
0.16263238 -0.090478547 -0.40600002
0.16350862 -0.0902557 -0.40500003
0.16397168 -0.089809991 -0.40300003
0.16483214 -0.08958713 -0.40200001
0.16527314 -0.089141421 -0.40000001
0.16570152 -0.08869572 -0.39800003
0.16527832 -0.08780431 -0.39400002
0.16525254 -0.087135747 -0.39100003
0.16563362 -0.086690038 -0.38900003
0.16600211 -0.08624433 -0.38700002
0.16635796 -0.085798621 -0.38500002
0.16670123 -0.085352913 -0.38300002
0.16747028 -0.085130066 -0.38200003
0.16823302 -0.084907211 -0.38100001
0.16943417 -0.084907211 -0.38100001
0.17018747 -0.084684357 -0.38000003
0.17093445 -0.084461503 -0.37900001
0.17212929 -0.084461503 -0.37900001
0.17286682 -0.084238648 -0.37800002
0.17405853 -0.084238648 -0.37800002
0.1752502 -0.084238648 -0.37800002
0.17597511 -0.084015794 -0.377
0.17716366 -0.084015794 -0.377
0.17787912 -0.08379294 -0.37600002
0.1790645 -0.08379294 -0.37600002
0.1802499 -0.08379294 -0.37600002
0.18095276 -0.083570093 -0.37500003
0.18213499 -0.083570093 -0.37500003
0.18331721 -0.083570093 -0.37500003
0.18449944 -0.083570093 -0.37500003
0.18568169 -0.083570093 -0.37500003
0.18686393 -0.083570093 -0.37500003
0.18804616 -0.083570093 -0.37500003
0.18922839 -0.083570093 -0.37500003
0.19041064 -0.083570093 -0.37500003
0.19159287 -0.083570093 -0.37500003
-0.22884984 -0.1313096 -0.58100003
-0.22701818 -0.1313096 -0.58100003
-0.22518648 -0.1313096 -0.58100003
-0.2233548 -0.1313096 -0.58100003
-0.22152314 -0.1313096 -0.58100003
-0.21969146 -0.1313096 -0.58100003
-0.21785979 -0.1313096 -0.58100003
-0.21602811 -0.1313096 -0.58100003
-0.21456511 -0.1315356 -0.58200002
-0.21273027 -0.1315356 -0.58200002
-0.21053308 -0.1313096 -0.58100003
-0.20870142 -0.1313096 -0.58100003
-0.20686972 -0.1313096 -0.58100003
-0.20503806 -0.1313096 -0.58100003
-0.20320638 -0.1313096 -0.58100003
-0.20102809 -0.13108359 -0.58000004
-0.19919959 -0.13108359 -0.58000004
-0.19703077 -0.13085759 -0.57900006
-0.19520541 -0.13085759 -0.57900006
-0.19304602 -0.13063158 -0.57800001
-0.1912238 -0.13063158 -0.57800001
-0.18940158 -0.13063158 -0.57800001
-0.18757936 -0.13063158 -0.57800001
-0.18543579 -0.13040558 -0.57700002
-0.18329848 -0.13017957 -0.57600003
-0.18085241 -0.12972754 -0.574
-0.17810705 -0.12904954 -0.57100004
-0.17507182 -0.12814552 -0.56700003
-0.17236744 -0.12746748 -0.56400001
-0.16968197 -0.12678948 -0.56100005
-0.16731471 -0.12633745 -0.55900002
-0.16496009 -0.12588546 -0.55700004
-0.16261806 -0.12543343 -0.55500001
-0.16086836 -0.12543343 -0.55500001
-0.15883194 -0.12520742 -0.55400002
-0.15708539 -0.12520742 -0.55400002
-0.15505844 -0.12498143 -0.55300003
-0.15331504 -0.12498143 -0.55300003
-0.15129755 -0.12475542 -0.55200005
-0.14955729 -0.12475542 -0.55200005
-0.14781706 -0.12475542 -0.55200005
-0.14581215 -0.12452941 -0.551
-0.14407505 -0.12452941 -0.551
-0.14207965 -0.1243034 -0.55000001
-0.14009053 -0.1240774 -0.54900002
-0.13835974 -0.1240774 -0.54900002
-0.13613121 -0.12362539 -0.54700005
-0.134161 -0.12339938 -0.546
-0.13195455 -0.12294737 -0.54400003
-0.1300001 -0.12272137 -0.54300004
-0.12781569 -0.12226935 -0.54100001
-0.12587702 -0.12204334 -0.54000002
-0.12371472 -0.12159134 -0.53800005
-0.12156499 -0.12113932 -0.53600001
-0.11942789 -0.12068731 -0.53400004
-0.11752389 -0.12046131 -0.53300005
-0.11562619 -0.12023529 -0.53200001
-0.11373481 -0.12000929 -0.53100002
-0.11184973 -0.11978328 -0.53000003
-0.10997096 -0.11955728 -0.52900004
-0.10830321 -0.11955728 -0.52900004
-0.10643388 -0.11933126 -0.528
-0.10496774 -0.11955728 -0.52900004
-0.10310472 -0.11933126 -0.528
-0.10144013 -0.11933126 -0.528
-0.099775538 -0.11933126 -0.528
-0.098110951 -0.11933126 -0.528
-0.096446365 -0.11933126 -0.528
-0.094781779 -0.11933126 -0.528
-0.0931172 -0.11933126 -0.528
-0.091279402 -0.11910526 -0.52700001
-0.089617968 -0.11910526 -0.52700001
-0.087956533 -0.11910526 -0.52700001
-0.086295098 -0.11910526 -0.52700001
-0.084473073 -0.11887926 -0.52600002
-0.082657352 -0.11865325 -0.52500004
-0.081002221 -0.11865325 -0.52500004
-0.059764143 -0.1021548 -0.45200002
-0.058339156 -0.1021548 -0.45200002
-0.056914173 -0.1021548 -0.45200002
-0.055611946 -0.1023808 -0.45300001
-0.054183807 -0.1023808 -0.45300001
-0.052755665 -0.1023808 -0.45300001
-0.051327527 -0.1023808 -0.45300001
-0.049899384 -0.1023808 -0.45300001
-0.048471246 -0.1023808 -0.45300001
-0.047043107 -0.1023808 -0.45300001
-0.048635822 -0.10916099 -0.48300001
-0.047113106 -0.10916099 -0.48300001
-0.045684781 -0.109387 -0.48400003
-0.044158906 -0.109387 -0.48400003
-0.042633034 -0.109387 -0.48400003
-0.041107163 -0.109387 -0.48400003
-0.03949951 -0.10916099 -0.48300001
-0.037976794 -0.10916099 -0.48300001
-0.0363786 -0.10893498 -0.48200002
-0.034859035 -0.10893498 -0.48200002
-0.033270303 -0.10870898 -0.48100004
-0.031753886 -0.10870898 -0.48100004
-0.030174609 -0.10848297 -0.48000002
-0.028661348 -0.10848297 -0.48000002
-0.027091529 -0.10825697 -0.47900003
-0.025581421 -0.10825697 -0.47900003
-0.024021059 -0.10803096 -0.47800002
-0.022514103 -0.10803096 -0.47800002
-0.021007147 -0.10803096 -0.47800002
-0.019459397 -0.10780495 -0.47700003
-0.017917952 -0.10757894 -0.47600001
-0.0164173 -0.10757894 -0.47600001
-0.014885313 -0.10735294 -0.47500002
-0.013359631 -0.10712694 -0.47400004
-0.011840253 -0.10690093 -0.47300002
-0.010327182 -0.10667492 -0.47200003
-0.0088204145 -0.10644891 -0.47100002
-0.0073199533 -0.10622291 -0.47000003
-0.0058257966 -0.1059969 -0.46900001
-0.004337946 -0.1057709 -0.46800002
-0.0028563999 -0.10554489 -0.46700001
-0.0013811595 -0.10531888 -0.46600002
8.7775756e-05 -0.10509288 -0.46500003
0.0015504058 -0.10486687 -0.46400002
0.0030067307 -0.10464087 -0.46300003
0.0044663968 -0.10464087 -0.46300003
0.0059132637 -0.10441486 -0.46200001
0.0073538255 -0.10418885 -0.46100003
0.0087880809 -0.10396285 -0.46000001
0.010216033 -0.10373684 -0.45900002
0.011637678 -0.10351084 -0.45800003
0.013081582 -0.10351084 -0.45800003
0.01449377 -0.10328483 -0.45700002
0.015934519 -0.10328483 -0.45700002
0.01733725 -0.10305882 -0.45600003
0.018774848 -0.10305882 -0.45600003
0.02016812 -0.10283282 -0.45500001
0.021555087 -0.10260681 -0.45400003
0.02298638 -0.10260681 -0.45400003
0.024471456 -0.10283282 -0.45500001
0.025905902 -0.10283282 -0.45500001
0.027400434 -0.10305882 -0.45600003
0.028838033 -0.10305882 -0.45600003
0.030342022 -0.10328483 -0.45700002
0.031921867 -0.10373684 -0.45900002
0.033441622 -0.10396285 -0.46000001
0.034891833 -0.10396285 -0.46000001
0.03634204 -0.10396285 -0.46000001
0.037792247 -0.10396285 -0.46000001
0.039157148 -0.10373684 -0.45900002
0.040515739 -0.10351084 -0.45800003
0.041868024 -0.10328483 -0.45700002
0.043119244 -0.10283282 -0.45500001
0.044455767 -0.10260681 -0.45400003
0.045785986 -0.1023808 -0.45300001
0.047109902 -0.1021548 -0.45200002
0.048534889 -0.1021548 -0.45200002
0.049849346 -0.10192879 -0.45100003
0.051271182 -0.10192879 -0.45100003
0.052809849 -0.1021548 -0.45200002
0.05423484 -0.1021548 -0.45200002
0.055782963 -0.1023808 -0.45300001
0.0573374 -0.10260681 -0.45400003
0.059027582 -0.10305882 -0.45600003
0.060597785 -0.10328483 -0.45700002
0.062174287 -0.10351084 -0.45800003
0.063757092 -0.10373684 -0.45900002
0.065346204 -0.10396285 -0.46000001
0.066796407 -0.10396285 -0.46000001
0.068246625 -0.10396285 -0.46000001
0.069696829 -0.10396285 -0.46000001
0.07114704 -0.10396285 -0.46000001
0.072597243 -0.10396285 -0.46000001
0.074047454 -0.10396285 -0.46000001
0.075333543 -0.10373684 -0.45900002
0.076780595 -0.10373684 -0.45900002
0.078057222 -0.10351084 -0.45800003
0.079327539 -0.10328483 -0.45700002
0.080414817 -0.10283282 -0.45500001
0.081669368 -0.10260681 -0.45400003
0.082734585 -0.1021548 -0.45200002
0.083973378 -0.10192879 -0.45100003
0.085016519 -0.10147678 -0.44900003
0.086239547 -0.10125078 -0.44800001
0.087456271 -0.10102477 -0.44700003
0.088467896 -0.10057276 -0.44500002
0.089668855 -0.10034675 -0.44400004
0.091068618 -0.10034675 -0.44400004
0.092260122 -0.10012075 -0.44300002
0.093656734 -0.10012075 -0.44300002
0.095053345 -0.10012075 -0.44300002
0.096449964 -0.10012075 -0.44300002
0.097846575 -0.10012075 -0.44300002
0.09901917 -0.09989474 -0.44200003
0.10041263 -0.09989474 -0.44200003
0.10180609 -0.09989474 -0.44200003
0.10319956 -0.09989474 -0.44200003
0.10459302 -0.09989474 -0.44200003
0.10574668 -0.099668726 -0.44100001
0.10713699 -0.099668726 -0.44100001
0.1082812 -0.099442728 -0.44000003
0.10966837 -0.099442728 -0.44000003
0.11080311 -0.099216715 -0.43900001
0.11218712 -0.099216715 -0.43900001
0.11331242 -0.098990709 -0.43800002
0.11443141 -0.098764703 -0.43700001
0.1155441 -0.098538697 -0.43600002
0.11638232 -0.098086685 -0.43400002
0.11693662 -0.097408667 -0.43100002
0.11719754 -0.096504644 -0.42700002
0.11771084 -0.095826626 -0.42400002
0.11820525 -0.095148608 -0.42100003
0.11896464 -0.094696596 -0.41900003
0.11971144 -0.094244584 -0.41700003
0.12044562 -0.093792573 -0.41500002
0.12146059 -0.093566567 -0.41400003
0.12217271 -0.093114555 -0.41200003
0.12317189 -0.092888542 -0.41100001
0.12446762 -0.092888542 -0.41100001
0.12545736 -0.092662543 -0.41000003
0.12644078 -0.09243653 -0.40900001
0.12773022 -0.09243653 -0.40900001
0.12901963 -0.09243653 -0.40900001
0.12999046 -0.092210524 -0.40800002
0.13127673 -0.092210524 -0.40800002
0.13256299 -0.092210524 -0.40800002
0.13384928 -0.092210524 -0.40800002
0.13513555 -0.092210524 -0.40800002
0.13642181 -0.092210524 -0.40800002
0.13770808 -0.092210524 -0.40800002
0.13933502 -0.09243653 -0.40900001
0.14096829 -0.092662543 -0.41000003
0.14260784 -0.092888542 -0.41100001
0.1442537 -0.093114555 -0.41200003
0.14625914 -0.093566567 -0.41400003
0.14792077 -0.093792573 -0.41500002
0.1495887 -0.094018571 -0.41600001
0.15090019 -0.094018571 -0.41600001
0.15257758 -0.094244584 -0.41700003
0.15352316 -0.094018571 -0.41600001
0.15483466 -0.094018571 -0.41600001
0.15577081 -0.093792573 -0.41500002
0.15670064 -0.093566567 -0.41400003
0.15800583 -0.093566567 -0.41400003
0.1589262 -0.093340553 -0.41300002
0.15984029 -0.093114555 -0.41200003
0.16074803 -0.092888542 -0.41100001
0.16125524 -0.09243653 -0.40900001
0.16214725 -0.092210524 -0.40800002
0.16263238 -0.091758512 -0.40600002
0.16350862 -0.091532513 -0.40500003
0.16397168 -0.091080494 -0.40300003
0.16483214 -0.090854488 -0.40200001
0.16527314 -0.090402476 -0.40000001
0.16528518 -0.089724459 -0.39700001
0.16527832 -0.089046441 -0.39400002
0.16525254 -0.088368423 -0.39100003
0.16520782 -0.087690398 -0.38800001
0.16557315 -0.087238386 -0.38600001
0.16635796 -0.08701238 -0.38500002
0.16670123 -0.086560369 -0.38300002
0.16747028 -0.08633437 -0.38200003
0.16823302 -0.086108357 -0.38100001
0.16898948 -0.085882351 -0.38000003
0.1697396 -0.085656345 -0.37900001
0.17093445 -0.085656345 -0.37900001
0.17167513 -0.085430339 -0.37800002
0.17286682 -0.085430339 -0.37800002
0.17405853 -0.085430339 -0.37800002
0.17478658 -0.085204333 -0.377
0.17597511 -0.085204333 -0.377
0.17669374 -0.084978327 -0.37600002
0.17787912 -0.084978327 -0.37600002
0.17858827 -0.084752321 -0.37500003
0.17977051 -0.084752321 -0.37500003
0.18095276 -0.084752321 -0.37500003
0.18213499 -0.084752321 -0.37500003
0.18282837 -0.084526315 -0.37400001
0.18400744 -0.084526315 -0.37400001
0.18518654 -0.084526315 -0.37400001
0.18636562 -0.084526315 -0.37400001
0.18754469 -0.084526315 -0.37400001
0.18872377 -0.084526315 -0.37400001
0.18990287 -0.084526315 -0.37400001
0.19108194 -0.084526315 -0.37400001
-0.22884984 -0.13314128 -0.58100003
-0.22701818 -0.13314128 -0.58100003
-0.22518648 -0.13314128 -0.58100003
-0.2233548 -0.13314128 -0.58100003
-0.22152314 -0.13314128 -0.58100003
-0.21969146 -0.13314128 -0.58100003
-0.21785979 -0.13314128 -0.58100003
-0.21602811 -0.13314128 -0.58100003
-0.21419644 -0.13314128 -0.58100003
-0.21236476 -0.13314128 -0.58100003
-0.21053308 -0.13314128 -0.58100003
-0.20870142 -0.13314128 -0.58100003
-0.20686972 -0.13314128 -0.58100003
-0.20468517 -0.13291211 -0.58000004
-0.20285663 -0.13291211 -0.58000004
-0.20068151 -0.13268296 -0.57900006
-0.19885615 -0.13268296 -0.57900006
-0.19703077 -0.13268296 -0.57900006
-0.19486825 -0.13245378 -0.57800001
-0.19304602 -0.13245378 -0.57800001
-0.1912238 -0.13245378 -0.57800001
-0.18940158 -0.13245378 -0.57800001
-0.18757936 -0.13245378 -0.57800001
-0.18575716 -0.13245378 -0.57800001
-0.18329848 -0.13199548 -0.57600003
-0.18085241 -0.13153715 -0.574
-0.17810705 -0.13084969 -0.57100004
-0.17507182 -0.12993304 -0.56700003
-0.17206183 -0.12901641 -0.56300002
-0.16968197 -0.1285581 -0.56100005
-0.16731471 -0.12809977 -0.55900002
-0.16496009 -0.12764147 -0.55700004
-0.16291107 -0.1274123 -0.55600005
-0.16086836 -0.12718314 -0.55500001
-0.15883194 -0.12695399 -0.55400002
-0.15708539 -0.12695399 -0.55400002
-0.15505844 -0.12672482 -0.55300003
-0.15331504 -0.12672482 -0.55300003
-0.15129755 -0.12649567 -0.55200005
-0.14955729 -0.12649567 -0.55200005
-0.14781706 -0.12649567 -0.55200005
-0.14581215 -0.12626649 -0.551
-0.14407505 -0.12626649 -0.551
-0.14207965 -0.12603734 -0.55000001
-0.14009053 -0.12580819 -0.54900002
-0.13810772 -0.12557903 -0.54800004
-0.13613121 -0.12534988 -0.54700005
-0.13391529 -0.12489155 -0.54500002
-0.13195455 -0.1246624 -0.54400003
-0.1300001 -0.12443324 -0.54300004
-0.12781569 -0.12397491 -0.54100001
-0.12564392 -0.1235166 -0.53900003
-0.12348475 -0.12305827 -0.537
-0.1213382 -0.12259997 -0.53500003
-0.11920425 -0.12214165 -0.53300005
-0.11730339 -0.12191249 -0.53200001
-0.11540885 -0.12168333 -0.53100002
-0.11352062 -0.12145417 -0.53000003
-0.1116387 -0.12122501 -0.52900004
-0.10976306 -0.12099585 -0.528
-0.10809847 -0.12099585 -0.528
-0.10643388 -0.12099585 -0.528
-0.1047693 -0.12099585 -0.528
-0.10310472 -0.12099585 -0.528
-0.10124801 -0.12076669 -0.52700001
-0.099775538 -0.12099585 -0.528
-0.098110951 -0.12099585 -0.528
-0.096263707 -0.12076669 -0.52700001
-0.094602272 -0.12076669 -0.52700001
-0.092940837 -0.12076669 -0.52700001
-0.091279402 -0.12076669 -0.52700001
-0.089617968 -0.12076669 -0.52700001
-0.087789632 -0.12053753 -0.52600002
-0.086131357 -0.12053753 -0.52600002
-0.084473073 -0.12053753 -0.52600002
-0.082657352 -0.12030838 -0.52500004
-0.080847934 -0.12007923 -0.52400005
-0.079195954 -0.12007923 -0.52400005
-0.059764143 -0.10357978 -0.45200002
-0.058339156 -0.10357978 -0.45200002
-0.056914173 -0.10357978 -0.45200002
-0.055489182 -0.10357978 -0.45200002
-0.054183807 -0.10380894 -0.45300001
-0.052755665 -0.10380894 -0.45300001
-0.051327527 -0.10380894 -0.45300001
-0.049899384 -0.10380894 -0.45300001
-0.048471246 -0.10380894 -0.45300001
-0.048434433 -0.11022539 -0.48100004
-0.047015563 -0.11045455 -0.48200002
-0.045495998 -0.11045455 -0.48200002
-0.044067666 -0.1106837 -0.48300001
-0.04254495 -0.1106837 -0.48300001
-0.040937297 -0.11045455 -0.48200002
-0.039417733 -0.11045455 -0.48200002
-0.037898168 -0.11045455 -0.48200002
-0.036303125 -0.11022539 -0.48100004
-0.034786716 -0.11022539 -0.48100004
-0.033201132 -0.10999623 -0.48000002
-0.031687871 -0.10999623 -0.48000002
-0.030111747 -0.10976707 -0.47900003
-0.028541926 -0.10953791 -0.47800002
-0.02703497 -0.10953791 -0.47800002
-0.025528014 -0.10953791 -0.47800002
-0.023970807 -0.10930876 -0.47700003
-0.022467004 -0.10930876 -0.47700003
-0.020963199 -0.10930876 -0.47700003
-0.019418601 -0.10907959 -0.47600001
-0.017880309 -0.10885043 -0.47500002
-0.016348321 -0.10862128 -0.47400004
-0.014822638 -0.10839212 -0.47300002
-0.013303261 -0.10816296 -0.47200003
-0.011790188 -0.1079338 -0.47100002
-0.010283423 -0.10770465 -0.47000003
-0.0088016875 -0.10770465 -0.47000003
-0.0073043788 -0.10747548 -0.46900001
-0.0058133751 -0.10724632 -0.46800002
-0.0043286765 -0.10701716 -0.46700001
-0.0028502836 -0.10678801 -0.46600002
-0.0013811595 -0.10678801 -0.46600002
8.7775756e-05 -0.10655885 -0.46500003
0.0015504058 -0.10632969 -0.46400002
0.0030067307 -0.10610053 -0.46300003
0.0044567501 -0.10587137 -0.46200001
0.0059004645 -0.10564221 -0.46100003
0.0073538255 -0.10564221 -0.46100003
0.0087880809 -0.10541305 -0.46000001
0.010216033 -0.1051839 -0.45900002
0.011637678 -0.10495474 -0.45800003
0.013081582 -0.10495474 -0.45800003
0.01449377 -0.10472558 -0.45700002
0.015934519 -0.10472558 -0.45700002
0.01733725 -0.10449642 -0.45600003
0.018733675 -0.10426726 -0.45500001
0.02016812 -0.10426726 -0.45500001
0.021555087 -0.1040381 -0.45400003
0.02298638 -0.1040381 -0.45400003
0.024417672 -0.1040381 -0.45400003
0.025905902 -0.10426726 -0.45500001
0.027340345 -0.10426726 -0.45500001
0.028838033 -0.10449642 -0.45600003
0.030342022 -0.10472558 -0.45700002
0.031852324 -0.10495474 -0.45800003
0.033441622 -0.10541305 -0.46000001
0.034891833 -0.10541305 -0.46000001
0.03634204 -0.10541305 -0.46000001
0.037710089 -0.1051839 -0.45900002
0.039071839 -0.10495474 -0.45800003
0.040427275 -0.10472558 -0.45700002
0.041776411 -0.10449642 -0.45600003
0.043024477 -0.1040381 -0.45400003
0.044357844 -0.10380894 -0.45300001
0.045684915 -0.10357978 -0.45200002
0.047005679 -0.10335063 -0.45100003
0.048427511 -0.10335063 -0.45100003
0.049849346 -0.10335063 -0.45100003
0.051271182 -0.10335063 -0.45100003
0.052693017 -0.10335063 -0.45100003
0.05423484 -0.10357978 -0.45200002
0.055782963 -0.10380894 -0.45300001
0.0573374 -0.1040381 -0.45400003
0.059027582 -0.10449642 -0.45600003
0.060597785 -0.10472558 -0.45700002
0.062174287 -0.10495474 -0.45800003
0.063757092 -0.1051839 -0.45900002
0.065204144 -0.1051839 -0.45900002
0.066796407 -0.10541305 -0.46000001
0.068246625 -0.10541305 -0.46000001
0.069696829 -0.10541305 -0.46000001
0.070992373 -0.1051839 -0.45900002
0.072439425 -0.1051839 -0.45900002
0.073886476 -0.1051839 -0.45900002
0.075333543 -0.1051839 -0.45900002
0.076613322 -0.10495474 -0.45800003
0.07788679 -0.10472558 -0.45700002
0.079153955 -0.10449642 -0.45600003
0.080414817 -0.10426726 -0.45500001
0.081669368 -0.1040381 -0.45400003
0.082734585 -0.10357978 -0.45200002
0.08378718 -0.10312147 -0.45000002
0.085016519 -0.10289231 -0.44900003
0.086047053 -0.10243399 -0.44700003
0.087260619 -0.10220483 -0.44600001
0.088467896 -0.10197567 -0.44500002
0.089668855 -0.10174651 -0.44400004
0.090863511 -0.10151736 -0.44300002
0.092260122 -0.10151736 -0.44300002
0.093445323 -0.1012882 -0.44200003
0.094838783 -0.1012882 -0.44200003
0.09623225 -0.1012882 -0.44200003
0.09762571 -0.1012882 -0.44200003
0.09901917 -0.1012882 -0.44200003
0.10041263 -0.1012882 -0.44200003
0.10180609 -0.1012882 -0.44200003
0.10319956 -0.1012882 -0.44200003
0.10459302 -0.1012882 -0.44200003
0.10574668 -0.10105903 -0.44100001
0.10713699 -0.10105903 -0.44100001
0.1082812 -0.10082988 -0.44000003
0.10966837 -0.10082988 -0.44000003
0.11080311 -0.10060072 -0.43900001
0.11218712 -0.10060072 -0.43900001
0.11331242 -0.10037156 -0.43800002
0.11443141 -0.1001424 -0.43700001
0.1155441 -0.099913239 -0.43600002
0.11611416 -0.099225767 -0.43300003
0.1166653 -0.098538287 -0.43000001
0.11747201 -0.098079972 -0.42800003
0.11743322 -0.096934177 -0.42300001
0.11792447 -0.096246704 -0.42000002
0.11868072 -0.095788382 -0.41800001
0.11942436 -0.095330067 -0.41600001
0.12044562 -0.095100909 -0.41500002
0.1211672 -0.094642587 -0.41300002
0.12217271 -0.094413437 -0.41200003
0.12317189 -0.094184272 -0.41100001
0.12416478 -0.093955114 -0.41000003
0.12515135 -0.09372595 -0.40900001
0.12644078 -0.09372595 -0.40900001
0.12741792 -0.093496799 -0.40800002
0.12870419 -0.093496799 -0.40800002
0.12999046 -0.093496799 -0.40800002
0.13127673 -0.093496799 -0.40800002
0.13256299 -0.093496799 -0.40800002
0.13384928 -0.093496799 -0.40800002
0.13513555 -0.093496799 -0.40800002
0.13642181 -0.093496799 -0.40800002
0.13770808 -0.093496799 -0.40800002
0.13933502 -0.09372595 -0.40900001
0.14096829 -0.093955114 -0.41000003
0.14260784 -0.094184272 -0.41100001
0.14460383 -0.094642587 -0.41300002
0.14625914 -0.094871752 -0.41400003
0.14792077 -0.095100909 -0.41500002
0.1495887 -0.095330067 -0.41600001
0.15090019 -0.095330067 -0.41600001
0.15221168 -0.095330067 -0.41600001
0.15352316 -0.095330067 -0.41600001
0.15483466 -0.095330067 -0.41600001
0.15577081 -0.095100909 -0.41500002
0.15670064 -0.094871752 -0.41400003
0.15762417 -0.094642587 -0.41300002
0.1589262 -0.094642587 -0.41300002
0.15984029 -0.094413437 -0.41200003
0.16074803 -0.094184272 -0.41100001
0.16125524 -0.09372595 -0.40900001
0.16214725 -0.093496799 -0.40800002
0.16263238 -0.093038477 -0.40600002
0.16310489 -0.092580162 -0.40400001
0.16397168 -0.092351004 -0.40300003
0.16442212 -0.091892682 -0.40100002
0.16485997 -0.091434367 -0.39900002
0.16486886 -0.090746894 -0.39600003
0.16527832 -0.090288572 -0.39400002
0.16482988 -0.089371935 -0.39000002
0.16520782 -0.08891362 -0.38800001
0.16557315 -0.088455297 -0.38600001
0.16635796 -0.088226147 -0.38500002
0.16670123 -0.087767825 -0.38300002
0.16703187 -0.08730951 -0.38100001
0.16823302 -0.08730951 -0.38100001
0.16898948 -0.087080352 -0.38000003
0.1697396 -0.086851187 -0.37900001
0.17093445 -0.086851187 -0.37900001
0.17167513 -0.08662203 -0.37800002
0.17286682 -0.08662203 -0.37800002
0.17359804 -0.086392872 -0.377
0.17478658 -0.086392872 -0.377
0.17550835 -0.086163715 -0.37600002
0.17669374 -0.086163715 -0.37600002
0.17740604 -0.085934557 -0.37500003
0.17858827 -0.085934557 -0.37500003
0.17977051 -0.085934557 -0.37500003
0.1804702 -0.085705392 -0.37400001
0.18164928 -0.085705392 -0.37400001
0.18282837 -0.085705392 -0.37400001
0.18400744 -0.085705392 -0.37400001
0.18518654 -0.085705392 -0.37400001
0.18636562 -0.085705392 -0.37400001
0.18754469 -0.085705392 -0.37400001
0.18872377 -0.085705392 -0.37400001
0.18990287 -0.085705392 -0.37400001
0.19108194 -0.085705392 -0.37400001
-0.22884984 -0.13497294 -0.58100003
-0.22701818 -0.13497294 -0.58100003
-0.2247989 -0.13474064 -0.58000004
-0.22297038 -0.13474064 -0.58000004
-0.22114186 -0.13474064 -0.58000004
-0.21931334 -0.13474064 -0.58000004
-0.21748482 -0.13474064 -0.58000004
-0.21602811 -0.13497294 -0.58100003
-0.21419644 -0.13497294 -0.58100003
-0.21236476 -0.13497294 -0.58100003
-0.21017072 -0.13474064 -0.58000004
-0.20834221 -0.13474064 -0.58000004
-0.20651367 -0.13474064 -0.58000004
-0.20468517 -0.13474064 -0.58000004
-0.20285663 -0.13474064 -0.58000004
-0.20068151 -0.13450833 -0.57900006
-0.19885615 -0.13450833 -0.57900006
-0.19669046 -0.134276 -0.57800001
-0.19486825 -0.134276 -0.57800001
-0.19304602 -0.134276 -0.57800001
-0.1912238 -0.134276 -0.57800001
-0.18940158 -0.134276 -0.57800001
-0.18757936 -0.134276 -0.57800001
-0.18543579 -0.13404369 -0.57700002
-0.18329848 -0.13381138 -0.57600003
-0.18085241 -0.13334677 -0.574
-0.17779514 -0.13241753 -0.57000005
-0.17476305 -0.13148828 -0.56600004
-0.17206183 -0.13079134 -0.56300002
-0.16937949 -0.13009439 -0.56
-0.16731471 -0.12986208 -0.55900002
-0.16496009 -0.12939748 -0.55700004
-0.16261806 -0.12893285 -0.55500001
-0.1605785 -0.12870054 -0.55400002
-0.15883194 -0.12870054 -0.55400002
-0.15680183 -0.12846823 -0.55300003
-0.15505844 -0.12846823 -0.55300003
-0.1530378 -0.12823592 -0.55200005
-0.15129755 -0.12823592 -0.55200005
-0.14955729 -0.12823592 -0.55200005
-0.14754926 -0.1280036 -0.551
-0.14581215 -0.1280036 -0.551
-0.14381358 -0.12777129 -0.55000001
-0.14182132 -0.12753898 -0.54900002
-0.14009053 -0.12753898 -0.54900002
-0.13810772 -0.12730667 -0.54800004
-0.13588233 -0.12684204 -0.546
-0.13391529 -0.12660973 -0.54500002
-0.13171199 -0.12614511 -0.54300004
-0.1297607 -0.1259128 -0.54200006
-0.12757945 -0.12544818 -0.54000002
-0.12541083 -0.12498356 -0.53800005
-0.12348475 -0.12475124 -0.537
-0.1211114 -0.12405431 -0.53400004
-0.11898059 -0.12358968 -0.53200001
-0.11708289 -0.12335737 -0.53100002
-0.11519151 -0.12312506 -0.53000003
-0.11330643 -0.12289275 -0.52900004
-0.11142765 -0.12266044 -0.528
-0.10976306 -0.12266044 -0.528
-0.10789374 -0.12242813 -0.52700001
-0.10623231 -0.12242813 -0.52700001
-0.10457088 -0.12242813 -0.52700001
-0.10290945 -0.12242813 -0.52700001
-0.10124801 -0.12242813 -0.52700001
-0.099586569 -0.12242813 -0.52700001
-0.097925141 -0.12242813 -0.52700001
-0.096263707 -0.12242813 -0.52700001
-0.094602272 -0.12242813 -0.52700001
-0.092764482 -0.12219582 -0.52600002
-0.091106199 -0.12219582 -0.52600002
-0.089447916 -0.12219582 -0.52600002
-0.087622739 -0.12196351 -0.52500004
-0.085967608 -0.12196351 -0.52500004
-0.084312484 -0.12196351 -0.52500004
-0.082499914 -0.1217312 -0.52400005
-0.080847934 -0.1217312 -0.52400005
-0.079195954 -0.1217312 -0.52400005
-0.07739599 -0.12149888 -0.523
-0.058339156 -0.10500477 -0.45200002
-0.056914173 -0.10500477 -0.45200002
-0.055489182 -0.10500477 -0.45200002
-0.054064196 -0.10500477 -0.45200002
-0.052755665 -0.10523708 -0.45300001
-0.051327527 -0.10523708 -0.45300001
-0.050009537 -0.10546939 -0.45400003
-0.048578247 -0.10546939 -0.45400003
-0.047873892 -0.10709558 -0.46100003
-0.048333738 -0.11150949 -0.48000002
-0.046918023 -0.1117418 -0.48100004
-0.04540161 -0.1117418 -0.48100004
-0.043885194 -0.1117418 -0.48100004
-0.042368781 -0.1117418 -0.48100004
-0.040852368 -0.1117418 -0.48100004
-0.039335955 -0.1117418 -0.48100004
-0.037819542 -0.1117418 -0.48100004
-0.036227651 -0.11150949 -0.48000002
-0.03471439 -0.11150949 -0.48000002
-0.033131965 -0.11127718 -0.47900003
-0.031555835 -0.11104487 -0.47800002
-0.029986018 -0.11081256 -0.47700003
-0.028482215 -0.11081256 -0.47700003
-0.026921852 -0.11058024 -0.47600001
-0.025421202 -0.11058024 -0.47600001
-0.023920553 -0.11058024 -0.47600001
-0.022419902 -0.11058024 -0.47600001
-0.020875303 -0.11034793 -0.47500002
-0.019377805 -0.11034793 -0.47500002
-0.017842667 -0.11011562 -0.47400004
-0.01631383 -0.10988331 -0.47300002
-0.014791301 -0.109651 -0.47200003
-0.013275076 -0.10941868 -0.47100002
-0.011765157 -0.10918638 -0.47000003
-0.010261542 -0.10895406 -0.46900001
-0.0087642334 -0.10872176 -0.46800002
-0.0072732298 -0.10848944 -0.46700001
-0.0058009531 -0.10848944 -0.46700001
-0.0043194075 -0.10825713 -0.46600002
-0.0028441672 -0.10802482 -0.46500003
-0.0013781957 -0.10802482 -0.46500003
8.7586988e-05 -0.1077925 -0.46400002
0.0015470644 -0.1075602 -0.46300003
0.0030067307 -0.1075602 -0.46300003
0.0044567501 -0.10732789 -0.46200001
0.0059004645 -0.10709558 -0.46100003
0.0073378733 -0.10686326 -0.46000001
0.0087689767 -0.10663095 -0.45900002
0.010193776 -0.10639864 -0.45800003
0.011637678 -0.10639864 -0.45800003
0.01305302 -0.10616633 -0.45700002
0.01449377 -0.10616633 -0.45700002
0.015899653 -0.10593402 -0.45600003
0.01733725 -0.10593402 -0.45600003
0.018733675 -0.1057017 -0.45500001
0.020123795 -0.10546939 -0.45400003
0.021555087 -0.10546939 -0.45400003
0.02298638 -0.10546939 -0.45400003
0.024417672 -0.10546939 -0.45400003
0.025905902 -0.1057017 -0.45500001
0.027340345 -0.1057017 -0.45500001
0.028838033 -0.10593402 -0.45600003
0.030342022 -0.10616633 -0.45700002
0.031852324 -0.10639864 -0.45800003
0.033368923 -0.10663095 -0.45900002
0.034815982 -0.10663095 -0.45900002
0.036263034 -0.10663095 -0.45900002
0.037627932 -0.10639864 -0.45800003
0.038986526 -0.10616633 -0.45700002
0.040338814 -0.10593402 -0.45600003
0.041684795 -0.1057017 -0.45500001
0.043024477 -0.10546939 -0.45400003
0.044259928 -0.10500477 -0.45200002
0.045583844 -0.10477246 -0.45100003
0.047005679 -0.10477246 -0.45100003
0.048320133 -0.10454015 -0.45000002
0.049738817 -0.10454015 -0.45000002
0.051271182 -0.10477246 -0.45100003
0.052693017 -0.10477246 -0.45100003
0.05423484 -0.10500477 -0.45200002
0.055782963 -0.10523708 -0.45300001
0.057463691 -0.1057017 -0.45500001
0.059027582 -0.10593402 -0.45600003
0.060597785 -0.10616633 -0.45700002
0.062174287 -0.10639864 -0.45800003
0.063757092 -0.10663095 -0.45900002
0.065204144 -0.10663095 -0.45900002
0.066651203 -0.10663095 -0.45900002
0.068098262 -0.10663095 -0.45900002
0.069545314 -0.10663095 -0.45900002
0.070992373 -0.10663095 -0.45900002
0.072439425 -0.10663095 -0.45900002
0.073886476 -0.10663095 -0.45900002
0.075169414 -0.10639864 -0.45800003
0.076446041 -0.10616633 -0.45700002
0.077716358 -0.10593402 -0.45600003
0.078980371 -0.1057017 -0.45500001
0.080238082 -0.10546939 -0.45400003
0.081489481 -0.10523708 -0.45300001
0.082551546 -0.10477246 -0.45100003
0.08378718 -0.10454015 -0.45000002
0.08482717 -0.10407552 -0.44800001
0.085854545 -0.1036109 -0.44600001
0.087064967 -0.10337859 -0.44500002
0.088269092 -0.10314628 -0.44400004
0.0894669 -0.10291397 -0.44300002
0.090863511 -0.10291397 -0.44300002
0.092051864 -0.10268166 -0.44200003
0.093445323 -0.10268166 -0.44200003
0.094838783 -0.10268166 -0.44200003
0.09623225 -0.10268166 -0.44200003
0.09762571 -0.10268166 -0.44200003
0.09901917 -0.10268166 -0.44200003
0.10041263 -0.10268166 -0.44200003
0.10180609 -0.10268166 -0.44200003
0.10319956 -0.10268166 -0.44200003
0.10459302 -0.10268166 -0.44200003
0.10574668 -0.10244934 -0.44100001
0.10713699 -0.10244934 -0.44100001
0.1082812 -0.10221703 -0.44000003
0.10966837 -0.10221703 -0.44000003
0.11080311 -0.10198472 -0.43900001
0.11218712 -0.10198472 -0.43900001
0.11331242 -0.10175241 -0.43800002
0.11443141 -0.1015201 -0.43700001
0.1155441 -0.10128779 -0.43600002
0.11611416 -0.10059085 -0.43300003
0.11693662 -0.10012623 -0.43100002
0.11719754 -0.099196985 -0.42700002
0.1171556 -0.098035425 -0.42200002
0.11792447 -0.097570807 -0.42000002
0.11868072 -0.097106181 -0.41800001
0.11942436 -0.096641555 -0.41600001
0.12015539 -0.096176937 -0.41400003
0.12087382 -0.095712312 -0.41200003
0.12187617 -0.095480002 -0.41100001
0.1228722 -0.095247693 -0.41000003
0.12386194 -0.095015377 -0.40900001
0.12515135 -0.095015377 -0.40900001
0.12644078 -0.095015377 -0.40900001
0.12741792 -0.094783068 -0.40800002
0.12870419 -0.094783068 -0.40800002
0.12999046 -0.094783068 -0.40800002
0.13127673 -0.094783068 -0.40800002
0.13256299 -0.094783068 -0.40800002
0.13384928 -0.094783068 -0.40800002
0.13513555 -0.094783068 -0.40800002
0.13642181 -0.094783068 -0.40800002
0.13770808 -0.094783068 -0.40800002
0.13933502 -0.095015377 -0.40900001
0.14096829 -0.095247693 -0.41000003
0.14260784 -0.095480002 -0.41100001
0.14460383 -0.095944621 -0.41300002
0.14625914 -0.096176937 -0.41400003
0.14792077 -0.096409246 -0.41500002
0.1495887 -0.096641555 -0.41600001
0.15090019 -0.096641555 -0.41600001
0.15221168 -0.096641555 -0.41600001
0.15352316 -0.096641555 -0.41600001
0.15483466 -0.096641555 -0.41600001
0.15577081 -0.096409246 -0.41500002
0.15670064 -0.096176937 -0.41400003
0.15762417 -0.095944621 -0.41300002
0.1585414 -0.095712312 -0.41200003
0.15945232 -0.095480002 -0.41100001
0.16035694 -0.095247693 -0.41000003
0.16125524 -0.095015377 -0.40900001
0.16174982 -0.094550751 -0.40700001
0.16263238 -0.094318442 -0.40600002
0.16310489 -0.093853816 -0.40400001
0.16397168 -0.093621515 -0.40300003
0.16442212 -0.093156889 -0.40100002
0.16444679 -0.092459954 -0.39800003
0.16445251 -0.09176302 -0.39500001
0.16443935 -0.091066085 -0.39200002
0.16440725 -0.09036915 -0.38900003
0.16478203 -0.089904532 -0.38700002
0.16514422 -0.089439906 -0.38500002
0.16592586 -0.08920759 -0.384
0.16626598 -0.088742971 -0.38200003
0.16703187 -0.088510655 -0.38100001
0.16779147 -0.088278346 -0.38000003
0.16854475 -0.088046037 -0.37900001
0.1697396 -0.088046037 -0.37900001
0.17048344 -0.087813728 -0.37800002
0.17167513 -0.087813728 -0.37800002
0.1724095 -0.087581411 -0.377
0.17359804 -0.087581411 -0.377
0.17432296 -0.087349102 -0.37600002
0.17550835 -0.087349102 -0.37600002
0.1762238 -0.087116793 -0.37500003
0.17740604 -0.087116793 -0.37500003
0.17811203 -0.086884476 -0.37400001
0.17929111 -0.086884476 -0.37400001
0.1804702 -0.086884476 -0.37400001
0.18164928 -0.086884476 -0.37400001
0.18233953 -0.086652167 -0.37300003
0.18351544 -0.086652167 -0.37300003
0.18469138 -0.086652167 -0.37300003
0.18586732 -0.086652167 -0.37300003
0.18704325 -0.086652167 -0.37300003
0.18821916 -0.086652167 -0.37300003
0.18939511 -0.086652167 -0.37300003
0.19057104 -0.086652167 -0.37300003
-0.2247989 -0.13656916 -0.58000004
-0.22297038 -0.13656916 -0.58000004
-0.22114186 -0.13656916 -0.58000004
-0.21931334 -0.13656916 -0.58000004
-0.21748482 -0.13656916 -0.58000004
-0.2156563 -0.13656916 -0.58000004
-0.21382777 -0.13656916 -0.58000004
-0.21199925 -0.13656916 -0.58000004
-0.21017072 -0.13656916 -0.58000004
-0.20834221 -0.13656916 -0.58000004
-0.20651367 -0.13656916 -0.58000004
-0.20468517 -0.13656916 -0.58000004
-0.20250688 -0.1363337 -0.57900006
-0.20068151 -0.1363337 -0.57900006
-0.19851267 -0.13609822 -0.57800001
-0.19669046 -0.13609822 -0.57800001
-0.19486825 -0.13609822 -0.57800001
-0.19304602 -0.13609822 -0.57800001
-0.1912238 -0.13609822 -0.57800001
-0.18940158 -0.13609822 -0.57800001
-0.18757936 -0.13609822 -0.57800001
-0.18543579 -0.13586277 -0.57700002
-0.18329848 -0.1356273 -0.57600003
-0.18085241 -0.13515636 -0.574
-0.17779514 -0.13421452 -0.57000005
-0.17476305 -0.13327266 -0.56600004
-0.17175621 -0.13233081 -0.56200004
-0.16937949 -0.13185987 -0.56
-0.1670154 -0.13138895 -0.55800003
-0.16466394 -0.13091803 -0.55600005
-0.16261806 -0.13068254 -0.55500001
-0.1605785 -0.13044709 -0.55400002
-0.15854524 -0.13021162 -0.55300003
-0.15680183 -0.13021162 -0.55300003
-0.15477805 -0.12997617 -0.55200005
-0.1530378 -0.12997617 -0.55200005
-0.15129755 -0.12997617 -0.55200005
-0.14928634 -0.12974069 -0.551
-0.14754926 -0.12974069 -0.551
-0.14554752 -0.12950523 -0.55000001
-0.14381358 -0.12950523 -0.55000001
-0.14182132 -0.12926976 -0.54900002
-0.13983536 -0.12903431 -0.54800004
